ply
format ascii 1.0
element vertex 1120
property float x
property float y
property float z
property uchar red
property uchar green
property uchar blue
end_header
11.992810 13.361177 94.943459 255 255 255
-3.780079 0.193665 87.828728 255 255 255
-51.626614 2.512630 99.216972 255 255 255
-47.544605 -8.334785 108.847740 255 255 255
-4.939692 0.262899 92.144188 255 255 255
-51.457630 6.041536 98.612373 255 255 255
4.856735 7.720753 86.278465 255 255 255
2.908122 -12.615355 73.105865 255 255 255
-51.352673 -1.459013 102.916000 255 255 255
3.146554 -10.274151 74.880524 255 255 255
-41.546902 6.609863 107.335266 255 255 255
-51.301735 3.994829 106.674545 255 255 255
9.243266 -13.244618 75.591621 255 255 255
16.103878 18.823740 94.937645 255 255 255
1.580459 -13.512803 74.996124 255 255 255
-42.014851 21.117609 103.998734 255 255 255
5.379536 -29.986977 95.389069 255 255 255
-40.953163 -33.126907 96.733711 255 255 255
-37.042816 -16.392317 107.061707 255 255 255
-50.019524 -1.308714 106.152977 255 255 255
-52.485519 5.364903 94.483116 255 255 255
-51.547543 5.201046 92.018173 255 255 255
-43.223694 -37.048832 93.304504 255 255 255
-40.651829 -40.014153 95.097488 255 255 255
-58.726238 -44.205509 95.614265 255 255 255
-54.889557 -8.906464 107.009567 255 255 255
-14.765207 30.583576 93.028770 255 255 255
-36.583050 -4.816917 108.555298 255 255 255
-41.407108 18.964931 107.861931 255 255 255
-52.059727 -2.058975 101.052536 255 255 255
-9.706347 13.587851 94.361740 255 255 255
-52.593109 5.794980 102.751717 255 255 255
-52.480026 2.438131 94.359261 255 255 255
-5.294448 2.551284 91.315269 255 255 255
0.355626 -0.648182 84.511040 255 255 255
-45.653748 22.442284 106.691833 255 255 255
-25.138998 35.499069 93.683907 255 255 255
-35.350311 -19.817917 102.934479 255 255 255
-2.714270 -12.829943 83.566574 255 255 255
-41.776848 22.948229 106.581375 255 255 255
-48.666870 -20.655333 108.137016 255 255 255
0.372649 -10.705063 75.923935 255 255 255
-44.695824 -11.345025 106.407661 255 255 255
3.444256 -5.348683 75.031525 255 255 255
-38.695179 -39.693275 94.551323 255 255 255
19.856813 16.588427 95.310028 255 255 255
10.700689 2.826108 85.961273 255 255 255
4.490640 16.185257 92.689537 255 255 255
-46.351192 -3.073685 109.027092 255 255 255
-44.747925 14.535006 107.126640 255 255 255
-36.492722 34.633556 96.489594 255 255 255
-34.056087 38.016392 91.741249 255 255 255
-21.011765 39.149334 95.396820 255 255 255
3.029350 41.876011 96.755493 255 255 255
1.580919 41.340446 98.195969 255 255 255
-46.198235 -3.076569 106.797478 255 255 255
5.197979 -13.144180 71.239998 255 255 255
-4.750794 -9.881959 95.025246 255 255 255
-38.362736 15.861737 106.080032 255 255 255
-0.378393 0.512020 85.408234 255 255 255
34.746143 19.157711 96.563820 255 255 255
27.191801 27.383293 97.744003 255 255 255
34.829769 7.578553 97.311981 255 255 255
32.799316 15.142526 96.409775 255 255 255
-33.417675 31.042925 94.297928 255 255 255
-9.432614 34.330891 94.312294 255 255 255
18.745747 3.502948 96.529503 255 255 255
32.218040 -14.696302 96.322479 255 255 255
-7.555574 28.042328 94.199120 255 255 255
2.820970 23.413465 93.519630 255 255 255
-19.175661 1.392546 100.792656 255 255 255
7.348880 -15.514279 73.064110 255 255 255
-4.771882 -19.539837 93.300583 255 255 255
12.562098 2.042043 87.220177 255 255 255
-14.519695 -17.742926 94.328705 255 255 255
7.661170 14.109859 89.649208 255 255 255
-19.276150 19.195187 96.134651 255 255 255
-16.803076 28.377041 97.628792 255 255 255
25.747406 18.006897 97.790108 255 255 255
-17.169811 29.792463 93.676651 255 255 255
-3.724377 -10.672243 89.192741 255 255 255
-38.911839 17.284082 105.901543 255 255 255
-48.387131 -19.266392 106.215530 255 255 255
3.331659 -9.538889 73.952423 255 255 255
-44.530598 19.469032 107.794754 255 255 255
-17.833254 15.513361 95.174843 255 255 255
8.942266 2.652780 83.781700 255 255 255
7.353914 7.757244 86.169601 255 255 255
-41.853008 -9.250755 108.364212 255 255 255
-19.731949 39.087730 91.824669 255 255 255
36.995987 36.044682 99.639359 255 255 255
0.590124 -21.918720 77.639877 255 255 255
7.209218 -8.040849 77.649048 255 255 255
0.137317 30.958271 95.860687 255 255 255
26.624224 29.641249 96.757927 255 255 255
34.548435 37.066399 97.051414 255 255 255
7.456809 -35.516251 93.406090 255 255 255
-9.434984 12.039152 93.147400 255 255 255
-1.146075 0.073494 22.015680 255 255 255
3.011445 9.545910 93.147743 255 255 255
10.998821 0.358999 83.573837 255 255 255
-44.201397 17.646650 105.286049 255 255 255
-2.612744 -18.972450 88.191170 255 255 255
-37.715382 -35.014977 91.361259 255 255 255
3.261101 -16.458811 76.231941 255 255 255
4.905376 6.257451 84.682587 255 255 255
29.643000 17.458752 95.900864 255 255 255
35.804283 43.046120 103.714714 255 255 255
11.315491 32.524067 95.472237 255 255 255
-21.559317 27.432854 93.584824 255 255 255
-0.142400 16.024517 95.075935 255 255 255
7.530038 -2.598134 80.293655 255 255 255
-5.536824 0.990083 100.009041 255 255 255
-2.615127 -19.131964 88.115059 255 255 255
-41.657013 22.763674 106.074905 255 255 255
-2.347616 -9.499567 84.956268 255 255 255
-5.578125 5.688535 93.432678 255 255 255
-17.851549 30.647655 94.442879 255 255 255
6.749816 -29.764133 102.099297 255 255 255
0.856564 -11.232795 75.613197 255 255 255
1.501662 -11.660205 75.975525 255 255 255
-20.308580 36.865074 90.313599 255 255 255
-4.915920 5.967301 88.134827 255 255 255
0.198389 -13.553716 78.765472 255 255 255
-0.124676 -1.262482 86.157463 255 255 255
-42.584072 16.145542 108.468887 255 255 255
-55.997822 -10.863557 106.521072 255 255 255
-19.285835 26.514290 94.791740 255 255 255
-21.860598 17.800444 97.681839 255 255 255
-48.715679 15.753871 107.702003 255 255 255
7.264515 1.126983 82.529770 255 255 255
19.447645 18.463524 96.237839 255 255 255
-32.309425 40.731350 90.664879 255 255 255
-35.405975 1.407544 107.893120 255 255 255
-38.685501 14.752370 108.077057 255 255 255
9.500288 8.347404 84.917656 255 255 255
-1.187778 -6.582971 83.534706 255 255 255
16.077099 40.569748 98.051895 255 255 255
3.397705 -9.714377 74.265022 255 255 255
-34.739708 38.631233 94.104118 255 255 255
1.698433 39.262268 94.560738 255 255 255
9.494047 -8.122581 76.564369 255 255 255
11.009852 -19.955662 84.446472 255 255 255
1.932424 -21.304855 80.751877 255 255 255
-39.054405 6.221129 108.855934 255 255 255
-44.258221 12.681337 106.606064 255 255 255
-49.386021 -9.638023 108.121323 255 255 255
-47.007996 -19.274227 106.191101 255 255 255
-48.631393 21.365614 109.233337 255 255 255
-49.283463 25.791990 105.379784 255 255 255
3.209592 -11.533699 74.564529 255 255 255
-54.572437 26.703934 107.496330 255 255 255
1.145305 -16.060312 76.938538 255 255 255
1.383454 -11.505261 74.446251 255 255 255
-59.775555 -12.416740 107.629860 255 255 255
-8.488361 8.604351 94.575447 255 255 255
7.519193 -7.549632 73.670349 255 255 255
-19.762360 15.545852 95.609390 255 255 255
-9.548512 30.924238 96.229721 255 255 255
-10.231250 29.774771 92.947174 255 255 255
-19.672274 36.798695 92.664970 255 255 255
2.874325 -36.305317 95.906998 255 255 255
-44.026176 17.652903 108.079681 255 255 255
3.420179 -11.570809 72.812057 255 255 255
-47.281727 21.184402 106.595528 255 255 255
0.545364 38.438145 94.802322 255 255 255
-27.572725 36.964367 92.327682 255 255 255
-16.892927 1.887616 97.725632 255 255 255
-25.171429 24.582064 98.543411 255 255 255
-26.472996 34.928699 91.226006 255 255 255
-5.763000 -21.327406 95.714188 255 255 255
-0.372267 -8.551099 79.846970 255 255 255
-32.203098 10.439977 106.225182 255 255 255
-47.414692 -11.497582 107.086128 255 255 255
-43.890450 -10.227798 106.558830 255 255 255
-57.688862 -32.937012 99.065475 255 255 255
-21.573284 27.488317 94.449074 255 255 255
-52.563629 -8.116434 108.235107 255 255 255
-5.828264 3.282148 89.351646 255 255 255
-47.834614 22.396626 106.164032 255 255 255
-53.451405 12.896090 113.124039 255 255 255
-2.963300 -6.872660 87.247787 255 255 255
3.129189 -12.143314 74.057755 255 255 255
-22.377245 19.207481 99.313263 255 255 255
-4.623764 1.934135 90.775101 255 255 255
-54.433418 20.615749 107.703156 255 255 255
10.241013 -7.183582 77.056389 255 255 255
18.979753 11.735001 94.815918 255 255 255
3.538174 -36.787609 94.872383 255 255 255
-2.951795 -37.686192 94.590538 255 255 255
6.725321 -10.369781 74.243843 255 255 255
-1.931622 -3.593056 85.011490 255 255 255
-51.286335 2.786173 102.696861 255 255 255
-44.285065 -7.081066 107.984886 255 255 255
5.813414 1.052010 81.376968 255 255 255
-1.214591 -14.512638 83.489059 255 255 255
-0.663176 -16.513592 80.970200 255 255 255
0.143998 -10.636026 73.866280 255 255 255
-3.722002 1.290242 84.966843 255 255 255
-2.327561 3.188396 87.075783 255 255 255
-41.709496 6.170850 106.282455 255 255 255
10.617104 35.635021 96.064217 255 255 255
-11.445168 9.659168 95.624550 255 255 255
-9.521621 8.379532 93.494568 255 255 255
-43.254902 14.434273 108.208160 255 255 255
30.635555 36.663692 97.713234 255 255 255
-0.132869 12.232692 89.115967 255 255 255
1.889336 4.716982 87.018600 255 255 255
-36.332111 13.291260 106.486847 255 255 255
-41.022694 -15.901677 106.274696 255 255 255
8.244133 5.728284 81.838921 255 255 255
-44.271919 15.420361 108.058609 255 255 255
0.340198 -15.211550 77.586853 255 255 255
10.979674 2.993214 86.174553 255 255 255
10.647030 2.684791 85.239769 255 255 255
1.285020 -8.242921 75.857216 255 255 255
7.731630 41.293354 95.882103 255 255 255
-20.482521 36.291309 95.688797 255 255 255
-4.413017 -20.605158 92.198532 255 255 255
-2.660090 16.287970 94.674706 255 255 255
-32.862930 -3.240315 104.681244 255 255 255
0.125498 -31.863182 96.441826 255 255 255
-4.048927 -5.196209 91.763573 255 255 255
26.334070 1.366549 95.239029 255 255 255
-17.290308 -17.608652 95.047226 255 255 255
-28.159594 25.120113 100.273804 255 255 255
-31.926741 28.274338 98.524452 255 255 255
-41.881584 -8.365812 108.641586 255 255 255
27.987320 30.016012 97.837585 255 255 255
-44.317570 -25.182062 103.525856 255 255 255
-12.171089 21.848301 95.564209 255 255 255
-44.601440 -11.044460 106.023689 255 255 255
-1.419265 -36.970894 94.272308 255 255 255
-18.372824 20.759712 93.879448 255 255 255
-55.991638 5.351593 87.241928 255 255 255
-55.216141 5.279194 87.983391 255 255 255
-45.465591 -17.811567 107.250244 255 255 255
-58.317410 -40.854149 96.073097 255 255 255
-38.192444 -32.182499 95.993523 255 255 255
-63.662209 -21.376431 106.663391 255 255 255
-55.169559 5.272596 87.887703 255 255 255
-64.494263 -11.766600 105.605156 255 255 255
-56.765987 -29.347807 102.914078 255 255 255
-53.124664 10.914274 102.191193 255 255 255
-56.528095 11.593511 109.591301 255 255 255
1.297974 17.193180 96.030815 255 255 255
-2.990137 -8.802121 86.135811 255 255 255
4.434012 -12.249625 73.702621 255 255 255
-26.442284 -29.042437 94.676369 255 255 255
31.815838 40.149231 99.361122 255 255 255
-9.115922 8.898206 97.773140 255 255 255
4.483268 41.034107 97.037994 255 255 255
-7.959989 5.827993 93.952347 255 255 255
11.670253 1.417663 87.375931 255 255 255
-38.058914 6.608737 108.107773 255 255 255
27.948553 5.293211 98.492012 255 255 255
7.605428 -1.019413 79.074982 255 255 255
1.776933 -19.364985 74.340050 255 255 255
7.339133 -15.631736 73.280586 255 255 255
-0.158356 -11.164082 72.437553 255 255 255
10.673404 -9.907068 84.000572 255 255 255
-41.734947 -10.202881 106.165695 255 255 255
-45.212406 -1.430085 107.525055 255 255 255
9.088402 -16.333218 76.415672 255 255 255
-20.168217 37.211838 94.327217 255 255 255
3.308456 7.341176 87.345108 255 255 255
31.389771 9.704757 97.017982 255 255 255
32.256763 40.645962 100.960152 255 255 255
-7.749269 0.879782 93.814339 255 255 255
-4.830675 -9.594496 92.743179 255 255 255
30.461761 -1.820663 95.387642 255 255 255
-11.925076 35.550526 93.499603 255 255 255
-18.955664 35.404156 94.815155 255 255 255
-11.608317 17.162325 92.496307 255 255 255
-2.419780 -2.650013 86.462357 255 255 255
-2.977333 -17.905748 84.991112 255 255 255
-0.417362 -20.991369 85.026077 255 255 255
0.470227 -11.756924 72.357460 255 255 255
-21.228197 17.310516 98.687813 255 255 255
16.223436 3.463110 94.349358 255 255 255
-1.262402 -6.563307 79.408669 255 255 255
-0.630253 -20.486897 83.014130 255 255 255
-1.861148 -4.339742 88.711830 255 255 255
-40.365105 -14.827750 105.938965 255 255 255
-2.970041 2.876432 85.912857 255 255 255
-36.086285 3.118841 112.452568 255 255 255
15.579761 3.842568 98.825714 255 255 255
6.102117 -3.230350 77.047943 255 255 255
7.271954 -2.225014 78.075836 255 255 255
-40.091106 -32.597027 95.625366 255 255 255
-4.887457 5.182567 85.869591 255 255 255
-3.919081 -23.541752 90.111130 255 255 255
-51.554543 2.103925 102.128075 255 255 255
-18.662498 16.482491 95.394485 255 255 255
-54.504219 -14.349079 108.734261 255 255 255
-1.696019 -20.121714 84.497864 255 255 255
-37.038750 13.735743 107.127861 255 255 255
-40.513649 18.757149 101.822144 255 255 255
-3.617415 16.774603 95.342506 255 255 255
1.926983 -10.361147 73.918839 255 255 255
-2.630003 -15.933161 83.343132 255 255 255
3.209692 -18.007488 80.043182 255 255 255
31.130972 22.879522 97.295349 255 255 255
31.294313 12.780275 96.469917 255 255 255
10.411461 29.187347 95.333870 255 255 255
-7.974562 37.168102 94.512321 255 255 255
0.195663 37.005161 97.045456 255 255 255
32.531219 30.023272 96.979004 255 255 255
28.623991 35.849998 97.171509 255 255 255
-14.388381 26.091894 94.119492 255 255 255
25.723581 -19.929258 97.511856 255 255 255
-35.963932 -29.463606 98.328888 255 255 255
-18.960491 2.167189 99.618385 255 255 255
-35.766792 -4.489609 105.323349 255 255 255
-21.497190 38.356125 93.654190 255 255 255
-40.960556 7.098723 108.166496 255 255 255
1.171210 -10.244579 74.447571 255 255 255
2.024212 -11.231469 72.557320 255 255 255
-1.757761 -1.142281 87.134354 255 255 255
-42.341053 -10.698226 107.930565 255 255 255
0.134739 -21.729153 85.485245 255 255 255
-27.134174 36.189934 94.107941 255 255 255
31.037357 30.245508 96.514503 255 255 255
9.668795 1.869105 83.782730 255 255 255
6.483976 41.389778 97.696526 255 255 255
4.946194 7.414157 84.435814 255 255 255
-42.850483 23.557661 100.098206 255 255 255
-4.466147 16.797760 94.150017 255 255 255
-10.406519 -17.552444 97.258118 255 255 255
-1.281272 -3.087604 44.999447 255 255 255
9.840246 8.814417 84.572998 255 255 255
-18.122341 35.980759 91.655968 255 255 255
5.548184 -14.069572 71.554230 255 255 255
-17.004713 31.748968 95.257866 255 255 255
5.721964 1.474418 80.443726 255 255 255
-4.316637 -20.857691 89.887665 255 255 255
28.729200 -5.928802 97.592102 255 255 255
-46.379337 22.473932 104.303543 255 255 255
-1.896282 39.868206 94.095734 255 255 255
12.961778 43.733994 97.297722 255 255 255
-17.182314 11.646625 95.506805 255 255 255
15.043366 -29.684269 95.475334 255 255 255
-46.037727 2.971586 106.882973 255 255 255
-46.416260 21.372797 104.091576 255 255 255
9.624636 20.763510 93.883011 255 255 255
-47.135288 -0.967096 109.322517 255 255 255
-24.681662 16.052378 98.915825 255 255 255
-18.413767 20.849394 94.278923 255 255 255
24.235434 22.379457 94.130173 255 255 255
25.076513 -5.928134 95.135612 255 255 255
-20.929979 27.177050 93.952339 255 255 255
-61.646580 -10.125605 109.129723 255 255 255
-60.460800 -46.024536 95.216492 255 255 255
-58.341667 -39.108654 96.452766 255 255 255
-47.147976 -11.764469 108.173706 255 255 255
-55.492367 22.162504 108.748161 255 255 255
-57.637604 24.570215 107.575233 255 255 255
-48.413593 13.498384 107.140739 255 255 255
8.891699 -7.931987 75.685036 255 255 255
-50.786934 -17.109966 107.477501 255 255 255
-37.163410 -6.044890 106.233505 255 255 255
-10.337954 30.234089 94.430382 255 255 255
-25.048662 35.493763 93.651337 255 255 255
21.731358 31.125200 96.302368 255 255 255
-40.846058 -32.495556 97.417801 255 255 255
2.941644 -18.702330 77.486481 255 255 255
-58.281101 -17.270790 107.694542 255 255 255
-3.458441 -16.727064 88.319344 255 255 255
-59.528885 -24.893177 102.806664 255 255 255
-58.948833 -43.336449 94.918983 255 255 255
-42.662846 -53.343430 98.283562 255 255 255
-0.961169 -4.787549 80.516403 255 255 255
-58.469002 -23.081491 108.749252 255 255 255
12.013931 31.818859 95.660774 255 255 255
1.411813 10.092043 89.976776 255 255 255
22.115524 31.196405 96.813133 255 255 255
-23.506620 30.782328 93.865578 255 255 255
-19.882349 28.794014 93.473053 255 255 255
18.252495 30.570164 95.588005 255 255 255
12.046056 32.049774 96.114494 255 255 255
-41.847565 33.887451 99.875847 255 255 255
-42.357071 -13.172853 107.967033 255 255 255
-65.012077 -16.170465 106.434372 255 255 255
-55.387222 8.032955 89.494232 255 255 255
5.979429 -48.522652 87.575508 255 255 255
-55.135601 10.042089 88.610664 255 255 255
-55.939716 -1.223979 90.697136 255 255 255
-64.828117 -13.087372 108.008957 255 255 255
-55.184032 6.976626 90.603180 255 255 255
-47.188927 10.755980 108.703094 255 255 255
-19.686108 -29.495232 95.200516 255 255 255
-43.975838 -12.389564 106.285736 255 255 255
-18.663029 -36.448662 94.435165 255 255 255
-54.444733 35.180420 103.071106 255 255 255
9.182907 -10.242582 79.048271 255 255 255
6.847454 8.223935 83.014748 255 255 255
3.105589 -17.093718 76.095177 255 255 255
6.345060 22.634329 95.774750 255 255 255
-21.946573 17.724682 97.422997 255 255 255
-1.387566 1.058382 86.307518 255 255 255
19.152287 29.486143 94.908836 255 255 255
8.755641 3.309417 83.472336 255 255 255
9.407488 -15.261538 77.503792 255 255 255
29.231590 9.485596 95.419563 255 255 255
-25.632875 17.706539 101.548561 255 255 255
-2.747189 21.555210 94.800957 255 255 255
-39.980942 24.810024 106.112854 255 255 255
-48.114395 8.448312 108.895210 255 255 255
5.095968 -5.077419 74.735466 255 255 255
-39.417801 8.558739 109.118095 255 255 255
28.776018 10.518762 95.913795 255 255 255
16.214848 30.917728 96.409119 255 255 255
2.742042 23.832966 95.206055 255 255 255
-47.313732 -8.885480 107.635101 255 255 255
29.569031 -0.746991 95.685974 255 255 255
-0.706234 -1.244862 87.740372 255 255 255
-20.071583 -35.006664 95.848305 255 255 255
2.096558 8.633679 87.596046 255 255 255
-5.093706 -24.875654 94.092651 255 255 255
14.162642 32.017353 95.805717 255 255 255
29.519304 28.199423 96.780266 255 255 255
31.296385 43.351208 98.407875 255 255 255
-10.927582 35.804230 95.544334 255 255 255
28.648245 32.962349 97.462105 255 255 255
-12.417117 29.082724 92.763832 255 255 255
-1.580537 41.716099 96.035728 255 255 255
13.874746 5.633784 91.840172 255 255 255
3.851651 8.824276 85.589539 255 255 255
-0.845650 -18.757648 82.938126 255 255 255
-38.643909 -35.728333 93.970970 255 255 255
-16.774185 27.634579 93.867470 255 255 255
-3.918708 37.361664 95.865952 255 255 255
21.356836 40.375324 97.248703 255 255 255
3.296559 -10.171809 73.577896 255 255 255
-4.520119 -15.387894 87.022812 255 255 255
-44.545227 0.195404 107.469986 255 255 255
-35.018932 -14.914886 107.211487 255 255 255
-7.270641 29.508352 94.207504 255 255 255
-37.570751 4.475737 105.340752 255 255 255
-42.871399 -0.879954 100.890640 255 255 255
-45.173615 18.938202 106.976532 255 255 255
15.327554 40.375397 96.669441 255 255 255
-2.694968 -6.044956 86.604034 255 255 255
2.131909 -15.587140 74.538177 255 255 255
27.233696 39.287289 99.261253 255 255 255
1.259391 -7.758446 73.251076 255 255 255
6.948924 14.464836 91.432404 255 255 255
-2.690208 -14.221495 84.779884 255 255 255
9.732655 -13.198163 76.819359 255 255 255
-33.994053 -28.639196 97.553177 255 255 255
-20.929920 28.776810 93.070267 255 255 255
22.172247 -8.567387 93.944740 255 255 255
-21.352997 27.125326 93.516075 255 255 255
-27.351019 31.655830 93.311996 255 255 255
-38.993469 16.704443 104.881927 255 255 255
26.988560 -20.315210 96.203110 255 255 255
4.053599 -9.825353 72.156425 255 255 255
16.405691 40.869434 98.363251 255 255 255
25.675997 6.233519 95.297890 255 255 255
6.934827 1.073667 81.234940 255 255 255
8.830770 38.704491 97.987251 255 255 255
-30.067930 9.519406 104.900093 255 255 255
-20.009615 -20.000263 95.589455 255 255 255
-21.116796 17.139791 97.288582 255 255 255
-34.093014 38.195557 92.399681 255 255 255
-35.235966 38.939316 91.497131 255 255 255
1.879839 -6.337003 75.686218 255 255 255
-1.944463 32.061481 94.460159 255 255 255
-31.269901 4.935794 107.849472 255 255 255
-18.613863 35.043350 93.741280 255 255 255
-27.609035 36.635387 91.520676 255 255 255
-25.234201 24.573206 97.620232 255 255 255
-3.870185 -5.410538 90.200310 255 255 255
-17.730345 16.284739 96.950508 255 255 255
1.257230 2.280833 87.608414 255 255 255
-37.621059 -2.882903 106.328560 255 255 255
-3.093210 -15.907339 85.705093 255 255 255
-2.788285 16.235256 94.981453 255 255 255
-30.135223 17.340832 102.880585 255 255 255
-44.844997 -16.866007 106.541847 255 255 255
2.113286 -14.449131 74.651543 255 255 255
-30.492674 22.156702 99.936035 255 255 255
-2.263156 -18.093058 84.686356 255 255 255
18.510441 13.983199 95.338478 255 255 255
0.804482 -22.351074 82.048340 255 255 255
-49.340649 -19.381216 106.180290 255 255 255
-7.372465 29.561186 94.565414 255 255 255
-19.266708 10.333933 97.113853 255 255 255
10.592807 -14.821843 78.550316 255 255 255
-16.405563 25.975239 92.908646 255 255 255
9.847585 -15.285016 78.386452 255 255 255
-4.901983 -0.721351 92.462090 255 255 255
4.394028 -9.134902 74.372475 255 255 255
-1.972871 -20.973206 86.130806 255 255 255
26.443649 12.351097 94.920937 255 255 255
-42.195107 -12.973808 107.786179 255 255 255
-53.713409 -1.242353 101.277237 255 255 255
-47.791611 -11.376690 107.730110 255 255 255
-4.895978 -7.698838 93.504623 255 255 255
-46.556232 -9.919936 107.009972 255 255 255
-19.682560 -29.391397 95.587227 255 255 255
-56.762875 27.830549 107.200096 255 255 255
1.287400 6.091092 87.338081 255 255 255
-33.632015 0.886414 107.718918 255 255 255
-54.460659 -18.959204 106.075218 255 255 255
-49.345005 23.358395 104.966560 255 255 255
-54.105015 22.847525 105.383415 255 255 255
-15.931509 2.416731 95.706360 255 255 255
-48.233761 -33.305988 92.393677 255 255 255
3.559184 8.828712 86.795395 255 255 255
-2.208960 -12.590682 81.848953 255 255 255
9.073467 -13.007114 74.480034 255 255 255
5.883298 1.068289 82.511444 255 255 255
7.264974 -22.858170 82.790756 255 255 255
16.307734 17.267233 95.419746 255 255 255
-19.955013 -13.289709 95.872406 255 255 255
0.404528 -12.369146 77.486336 255 255 255
-2.132787 7.964051 86.751534 255 255 255
23.394686 14.106589 95.089180 255 255 255
1.561285 -5.071703 76.531738 255 255 255
-2.596138 -10.022160 84.504478 255 255 255
-20.852516 12.531359 97.668671 255 255 255
4.153785 -10.504718 73.799744 255 255 255
-2.233719 3.961817 86.762527 255 255 255
5.934775 -23.344122 85.080597 255 255 255
-33.252220 17.128796 106.455696 255 255 255
-29.977596 29.842625 96.634254 255 255 255
-49.104515 22.764395 107.568024 255 255 255
6.979157 20.102703 93.058067 255 255 255
-20.113409 22.049833 94.994034 255 255 255
-26.964455 35.984520 93.620224 255 255 255
-20.106462 -42.492657 96.249168 255 255 255
-10.847545 35.594604 94.842438 255 255 255
10.971373 -17.158079 80.904022 255 255 255
-17.248766 -16.480005 94.487114 255 255 255
-26.672960 34.382683 94.987785 255 255 255
-2.681090 -5.952853 86.519455 255 255 255
-20.523592 -23.251970 95.508224 255 255 255
-10.210855 30.330910 95.213516 255 255 255
-21.344847 26.947992 92.583672 255 255 255
-30.914862 22.213352 101.590759 255 255 255
-61.547554 -14.361794 108.152206 255 255 255
-58.267483 -39.021618 100.855141 255 255 255
-54.893761 -18.962845 104.966385 255 255 255
16.149509 -43.035728 97.062111 255 255 255
-44.938015 11.822508 107.166611 255 255 255
-49.124290 23.234947 106.758072 255 255 255
-5.561239 18.706158 93.746376 255 255 255
-2.768970 -22.280409 87.614441 255 255 255
-2.903997 -16.422737 85.364120 255 255 255
-4.815008 0.060924 90.169556 255 255 255
1.700943 -12.418869 73.196877 255 255 255
32.092247 40.293140 99.402542 255 255 255
-29.189749 24.550358 99.933990 255 255 255
-14.965417 21.649221 94.531891 255 255 255
-31.579552 -26.258038 97.546974 255 255 255
22.946474 8.076134 95.402596 255 255 255
-38.069218 6.323857 107.666557 255 255 255
8.400501 43.702560 98.322693 255 255 255
-28.427645 34.148010 92.836731 255 255 255
25.294571 17.301157 96.120636 255 255 255
12.723025 36.274792 98.276756 255 255 255
9.734885 21.658001 93.638687 255 255 255
-21.400751 38.037411 92.943985 255 255 255
9.363386 40.685612 97.929993 255 255 255
8.512278 37.458801 95.031624 255 255 255
-3.667443 -9.094734 88.098061 255 255 255
-0.749953 -12.283536 79.776459 255 255 255
26.945997 13.987290 95.919037 255 255 255
29.858831 38.447792 99.267097 255 255 255
1.421519 -13.004113 76.685585 255 255 255
6.215931 1.887678 79.917007 255 255 255
-2.597671 -18.955427 86.425858 255 255 255
25.704554 -24.703545 94.666786 255 255 255
-21.561584 -18.063484 95.598511 255 255 255
2.043739 7.480618 87.750557 255 255 255
6.929011 8.144960 83.544823 255 255 255
-18.669737 26.118570 94.079681 255 255 255
-2.293926 -33.353062 95.242691 255 255 255
12.572688 -9.920470 82.239204 255 255 255
16.573433 41.984745 101.733406 255 255 255
26.812136 37.716759 97.453728 255 255 255
13.085524 -5.225078 85.402092 255 255 255
-36.519672 0.487068 104.766342 255 255 255
-4.233681 -1.275870 84.113831 255 255 255
-39.440933 2.342714 108.261322 255 255 255
-45.716763 13.170038 106.729156 255 255 255
-4.615127 6.416542 88.939384 255 255 255
-37.829433 -37.241333 94.506271 255 255 255
-43.269470 -10.349168 108.208618 255 255 255
3.315223 7.282012 86.926399 255 255 255
-25.922029 0.471670 103.747704 255 255 255
-51.135174 9.608434 106.170044 255 255 255
-58.171131 -11.099643 107.478828 255 255 255
-54.712067 -14.868668 107.441544 255 255 255
-54.655800 10.787918 99.937363 255 255 255
4.810581 2.618972 82.231621 255 255 255
9.330966 1.621479 83.432182 255 255 255
4.522354 -8.629778 72.983246 255 255 255
2.526217 -32.172199 96.188759 255 255 255
8.724542 14.853295 93.905975 255 255 255
-42.984604 -22.987209 105.312691 255 255 255
12.243903 13.702151 96.199783 255 255 255
-34.582859 -5.039837 105.760246 255 255 255
-43.590744 5.958552 106.431290 255 255 255
3.723545 0.260814 81.832489 255 255 255
-46.058670 31.049015 106.788689 255 255 255
-49.050522 -8.449326 106.613243 255 255 255
-45.142921 14.604223 107.114655 255 255 255
3.239951 8.927751 86.352486 255 255 255
-36.739182 -1.776953 110.863815 255 255 255
-54.157257 -14.068850 107.162941 255 255 255
8.819609 -4.503260 79.029297 255 255 255
-46.883629 -18.938457 106.303825 255 255 255
-47.087597 10.538150 107.811005 255 255 255
-3.997047 -38.502907 96.241508 255 255 255
-52.827137 18.885756 108.167953 255 255 255
17.938328 18.692905 95.073914 255 255 255
24.361320 17.994455 97.327209 255 255 255
17.507311 15.698063 95.457382 255 255 255
-8.200434 4.948927 94.325729 255 255 255
25.472301 -1.031446 95.113068 255 255 255
-46.783298 22.256844 106.034409 255 255 255
-3.015871 -1.961518 90.297493 255 255 255
-10.763380 24.249630 94.232552 255 255 255
2.119654 -12.618734 74.650093 255 255 255
-42.404308 34.198864 100.978088 255 255 255
-21.237522 24.513971 94.539650 255 255 255
-21.031101 -0.986202 97.636581 255 255 255
-4.905220 -17.441044 88.968689 255 255 255
-58.819424 -11.400441 105.312294 255 255 255
-52.928337 -7.754767 105.758774 255 255 255
-57.736565 26.214760 110.122124 255 255 255
-54.725456 24.625103 108.795364 255 255 255
-46.754169 -9.432000 110.079575 255 255 255
-5.854302 4.090397 95.117081 255 255 255
-46.208870 -34.653690 89.497383 255 255 255
-54.926655 -9.988404 105.147743 255 255 255
-53.436428 21.544952 108.915466 255 255 255
-43.387508 21.283352 107.192307 255 255 255
-19.466330 -21.957096 95.145126 255 255 255
-51.690426 2.527916 96.595146 255 255 255
-3.924474 -10.492886 81.785454 255 255 255
-46.721302 20.347128 109.882027 255 255 255
-3.581777 5.861748 86.622490 255 255 255
-2.258726 18.666246 94.388695 255 255 255
-50.112152 23.661402 106.813278 255 255 255
-43.703758 2.820194 102.874954 255 255 255
-5.484286 7.255079 86.211647 255 255 255
-5.252227 4.685103 90.996155 255 255 255
-2.318130 -7.644764 85.129684 255 255 255
-52.414600 10.655528 104.930473 255 255 255
-2.282311 -20.632767 85.445801 255 255 255
-2.786839 -14.200527 84.740417 255 255 255
-44.427277 -0.733855 109.173820 255 255 255
21.361240 21.217579 94.959373 255 255 255
-50.806515 12.976668 107.394798 255 255 255
29.265442 -8.374517 96.163101 255 255 255
1.476705 -6.060598 75.740967 255 255 255
9.599940 1.841990 83.216782 255 255 255
32.210011 -11.858505 96.236984 255 255 255
-18.354786 26.210037 93.932587 255 255 255
-22.908733 26.844660 93.535469 255 255 255
-50.287861 -9.255527 108.585220 255 255 255
-42.117321 22.200447 104.330437 255 255 255
5.173434 -7.068382 71.277962 255 255 255
-46.975723 15.142608 106.701141 255 255 255
-38.346882 17.031227 106.421135 255 255 255
25.092934 -1.442234 95.759399 255 255 255
1.475382 18.021299 93.925674 255 255 255
19.501545 30.059464 96.361298 255 255 255
-29.201038 -20.198885 99.029854 255 255 255
-21.835867 -20.704588 96.156738 255 255 255
2.741730 -19.695093 73.464218 255 255 255
13.227715 -1.456489 84.786148 255 255 255
5.896189 -11.813996 74.248802 255 255 255
-1.793572 -0.519276 95.419044 255 255 255
9.504692 34.382442 95.389755 255 255 255
12.712111 -5.674965 82.470673 255 255 255
-10.187570 -6.888978 95.182083 255 255 255
-45.354923 4.979774 108.817146 255 255 255
1.378777 -12.009132 78.299133 255 255 255
-1.101365 -0.758798 87.665298 255 255 255
-36.741962 4.200290 107.997841 255 255 255
-15.885178 1.763673 95.224419 255 255 255
-1.982983 -9.911936 89.595078 255 255 255
4.330732 -12.894912 72.983841 255 255 255
4.771655 6.143117 84.791229 255 255 255
3.748027 0.062977 83.204445 255 255 255
3.896502 8.061136 87.911125 255 255 255
-32.460217 27.247078 98.714043 255 255 255
4.755359 -8.439731 74.747681 255 255 255
-53.849598 19.121683 108.143944 255 255 255
-41.941505 -9.491147 107.721024 255 255 255
-32.919624 -7.291083 106.955299 255 255 255
-59.823162 -16.899771 108.372574 255 255 255
-53.833405 -15.676314 107.521843 255 255 255
-52.222630 13.270935 106.056473 255 255 255
-4.632510 1.346605 87.887352 255 255 255
8.930060 -22.936882 95.521904 255 255 255
-56.461124 -21.436796 107.809891 255 255 255
-45.053410 12.746020 107.835014 255 255 255
-55.926373 -13.963702 107.624924 255 255 255
-20.207460 -30.511837 95.280327 255 255 255
-52.181980 -38.899078 102.019974 255 255 255
-5.758914 -28.626802 95.725296 255 255 255
-2.794629 -18.678299 77.925980 255 255 255
-44.445168 -10.409122 109.295326 255 255 255
-58.204552 25.975800 108.538185 255 255 255
-12.995374 22.291969 133.158493 255 255 255
-19.350428 2.642025 101.510040 255 255 255
-5.187747 -6.474001 77.409241 255 255 255
-51.228905 17.388887 97.136002 255 255 255
0.819626 -7.927276 78.500824 255 255 255
7.230930 8.241149 100.155518 255 255 255
-3.576012 23.793829 91.950378 255 255 255
-42.606007 -24.913446 98.414688 255 255 255
32.886658 -36.500481 96.787636 255 255 255
-33.761063 24.149094 104.125885 255 255 255
3.899046 8.315104 86.076393 255 255 255
-3.130308 10.227307 87.405968 255 255 255
-4.974551 -23.567219 93.628036 255 255 255
1.964302 -12.365710 74.531410 255 255 255
-18.097555 26.586733 92.864548 255 255 255
-9.693090 30.731125 96.302643 255 255 255
26.160107 -7.159835 98.117386 255 255 255
33.837200 17.772673 96.782753 255 255 255
33.575279 6.490017 96.574852 255 255 255
-18.674328 25.988722 90.666779 255 255 255
-19.330481 -11.702047 95.118660 255 255 255
7.735026 14.254310 90.780495 255 255 255
-21.035975 29.079058 93.674553 255 255 255
10.949073 -26.450399 95.765038 255 255 255
-40.655441 3.353489 98.123917 255 255 255
-1.303967 -26.365417 94.239311 255 255 255
11.827480 -4.581419 81.419716 255 255 255
8.848855 42.511433 98.160065 255 255 255
27.036190 38.091705 98.360306 255 255 255
-1.076508 -22.358538 80.075233 255 255 255
33.886524 4.144021 97.628082 255 255 255
-24.840553 -24.262300 98.557159 255 255 255
-13.141878 -26.951473 94.108109 255 255 255
-16.558851 2.111556 96.271355 255 255 255
2.991203 -18.945360 75.609756 255 255 255
3.394348 -16.861969 74.192154 255 255 255
-0.626654 -6.144324 78.501328 255 255 255
7.452932 4.093324 82.107628 255 255 255
-19.381773 26.603132 93.618469 255 255 255
-43.518490 17.593418 106.130646 255 255 255
-1.911329 8.630112 87.151756 255 255 255
16.835016 6.366191 94.756149 255 255 255
8.291248 -9.892673 76.703156 255 255 255
25.721729 -1.133620 96.099831 255 255 255
-29.920263 -7.776945 108.618729 255 255 255
7.872732 14.330240 93.118347 255 255 255
-4.347868 -6.192848 91.538612 255 255 255
-21.702211 -18.147333 95.902687 255 255 255
-41.165073 -33.775085 97.017746 255 255 255
15.141178 3.912813 94.732857 255 255 255
-1.677891 -10.549751 79.791031 255 255 255
5.869157 -6.480257 72.659920 255 255 255
8.265477 23.639715 94.724602 255 255 255
10.927844 -6.715017 78.723068 255 255 255
7.810280 14.216480 92.376846 255 255 255
0.015416 -15.567490 86.843239 255 255 255
8.633319 -24.249296 90.997093 255 255 255
-2.891500 -2.171578 108.377670 255 255 255
5.861894 -26.174961 87.648819 255 255 255
7.120237 -25.556946 92.291763 255 255 255
3.977105 -6.371139 71.232857 255 255 255
12.275990 3.379860 87.893265 255 255 255
28.899601 10.127332 95.969635 255 255 255
-5.021563 5.422393 86.735062 255 255 255
24.023655 20.878372 98.027847 255 255 255
0.957419 -8.494404 77.163414 255 255 255
-11.304651 35.839813 95.801537 255 255 255
-4.916286 -19.011091 86.385414 255 255 255
4.898520 -20.641285 84.718521 255 255 255
4.418775 0.246066 81.847282 255 255 255
-39.991226 6.392131 111.645729 255 255 255
-3.032471 7.041057 87.691399 255 255 255
-16.897856 -37.804039 95.471138 255 255 255
-29.969717 -9.385056 102.073517 255 255 255
3.865940 -14.223276 73.077850 255 255 255
-43.054642 -36.931831 92.932220 255 255 255
-33.289425 12.854837 107.624214 255 255 255
-57.728355 7.317044 115.970917 255 255 255
-44.361805 12.856908 106.862198 255 255 255
19.841867 7.217232 96.208496 255 255 255
-52.925377 12.681711 102.335503 255 255 255
-10.742968 24.400158 94.262291 255 255 255
1.943849 -31.325665 93.770073 255 255 255
9.915257 -13.826144 76.335754 255 255 255
-58.231052 10.109571 119.273636 255 255 255
0.837973 -20.993551 81.345131 255 255 255
-42.314079 20.970133 106.397507 255 255 255
3.245806 -16.180113 73.919914 255 255 255
-5.504853 4.012440 89.022820 255 255 255
-12.316018 22.924854 94.063057 255 255 255
-47.821323 -2.184992 106.913445 255 255 255
-16.783493 27.398441 93.010788 255 255 255
-0.149111 -20.606421 83.320946 255 255 255
-50.044926 2.202769 106.715454 255 255 255
-28.472574 -23.268921 97.104073 255 255 255
-55.749783 27.734335 111.038498 255 255 255
-46.171017 4.633835 107.045715 255 255 255
-28.189108 18.044168 102.679436 255 255 255
-14.125283 30.385336 93.252609 255 255 255
-24.227314 -24.991816 94.501968 255 255 255
-8.081010 -32.104256 94.244347 255 255 255
3.611181 0.253820 82.200523 255 255 255
6.532321 24.083258 93.692337 255 255 255
-40.969189 19.918699 106.254227 255 255 255
-53.128494 20.316011 107.680550 255 255 255
-52.398304 15.448256 107.767853 255 255 255
-9.051170 12.892371 94.561195 255 255 255
7.685447 -15.620485 73.411560 255 255 255
-40.723667 -16.363674 106.961823 255 255 255
-0.001768 -11.244777 76.977295 255 255 255
-0.644621 -9.470083 42.818104 255 255 255
-54.795773 26.678223 108.842323 255 255 255
-54.492508 22.377569 108.577927 255 255 255
6.916743 19.176031 94.837669 255 255 255
7.888988 -8.008175 68.144402 255 255 255
21.466774 -5.479313 95.254738 255 255 255
-45.573494 -17.830725 107.131447 255 255 255
8.947787 -10.394344 77.581909 255 255 255
-53.582912 19.079899 107.595276 255 255 255
-51.438801 5.299016 97.495247 255 255 255
-5.000402 -21.119129 92.976784 255 255 255
-0.452798 -10.161883 78.249672 255 255 255
-20.719223 28.410273 93.678192 255 255 255
-43.273705 19.150558 107.757515 255 255 255
-36.506397 10.182371 108.317047 255 255 255
-53.135269 9.376565 107.894836 255 255 255
2.428079 -7.420587 74.888756 255 255 255
3.334057 -19.610394 77.840950 255 255 255
-26.036507 16.817144 94.021553 255 255 255
27.512787 -4.361760 95.982674 255 255 255
-47.807182 25.894163 110.074341 255 255 255
2.237334 -15.391213 72.573929 255 255 255
-21.495201 -32.074753 95.396767 255 255 255
-51.675144 19.952122 105.141968 255 255 255
-50.211937 -35.649536 88.549690 255 255 255
-1.564930 -8.896131 82.830261 255 255 255
-15.727879 1.730214 92.378723 255 255 255
-53.849880 12.416159 103.813263 255 255 255
5.669985 -11.504125 73.715919 255 255 255
11.786408 14.705774 93.713127 255 255 255
10.006119 34.287239 93.038605 255 255 255
-7.765585 28.456127 96.199661 255 255 255
-17.154848 30.464273 93.638924 255 255 255
-2.143873 -21.333883 87.659409 255 255 255
-18.521164 25.028372 90.484558 255 255 255
4.773657 7.557052 85.115776 255 255 255
-42.359669 32.502663 102.753052 255 255 255
-43.702614 -10.139963 106.400406 255 255 255
5.544700 -25.567474 85.226364 255 255 255
-2.464509 -22.442671 61.918732 255 255 255
-52.448017 21.877798 107.385376 255 255 255
19.767469 8.590055 95.093468 255 255 255
-42.762997 -11.527183 106.723145 255 255 255
-0.537239 -14.045107 52.332863 255 255 255
12.764754 -2.879376 178.808319 255 255 255
-53.967697 9.888577 109.913712 255 255 255
9.898343 -15.661827 114.271935 255 255 255
4.187274 -9.091216 74.711441 255 255 255
-38.814308 8.591361 106.949486 255 255 255
9.189246 -49.295586 155.554260 255 255 255
24.451841 -2.316292 95.351845 255 255 255
-20.249640 -15.077328 95.958054 255 255 255
-11.791271 -30.805080 95.660149 255 255 255
-3.114572 -21.033470 152.060776 255 255 255
-11.196127 -27.659939 86.998665 255 255 255
-49.870216 5.648778 96.655785 255 255 255
-50.634327 2.678455 98.057617 255 255 255
-53.724384 20.616884 104.803375 255 255 255
24.052351 20.372896 95.237442 255 255 255
-51.453590 4.485141 96.060081 255 255 255
-18.545671 0.826218 96.312210 255 255 255
-46.035355 23.695385 105.601006 255 255 255
-8.963625 -26.889362 91.446243 255 255 255
-13.197763 -26.430519 93.149292 255 255 255
-49.688034 13.919291 102.869087 255 255 255
-2.322328 18.239452 97.468956 255 255 255
-44.819393 -16.401457 106.472649 255 255 255
-27.435049 -23.575453 96.227661 255 255 255
-37.455475 14.087777 112.072250 255 255 255
-50.123962 20.908295 109.152969 255 255 255
-46.945332 20.788517 109.148178 255 255 255
-48.127735 -8.090837 104.161194 255 255 255
-14.847712 21.181789 93.092102 255 255 255
24.966150 21.972204 96.674583 255 255 255
25.743479 -5.036865 95.331474 255 255 255
4.092678 -24.330587 83.752037 255 255 255
-23.459505 30.069099 93.856140 255 255 255
-5.793200 -22.000879 93.666084 255 255 255
-43.557343 -26.132734 103.195190 255 255 255
26.146845 17.730368 98.754799 255 255 255
-1.521259 -19.650637 84.876808 255 255 255
-47.095177 -10.043506 107.044922 255 255 255
-55.279888 -14.159678 107.086182 255 255 255
-57.030045 26.269770 104.338982 255 255 255
7.784263 -15.398197 71.243690 255 255 255
-54.901722 23.545322 103.296837 255 255 255
23.803701 17.662888 97.575256 255 255 255
-35.927429 -16.344151 102.117096 255 255 255
5.603003 -15.875345 69.064178 255 255 255
-56.013260 21.416555 115.255280 255 255 255
-52.329231 24.732592 105.506729 255 255 255
-50.364716 24.315029 106.395790 255 255 255
-51.186832 -3.044317 108.253288 255 255 255
-4.398911 -9.806856 83.515060 255 255 255
-30.950230 -29.725368 96.242958 255 255 255
23.236095 -37.385647 222.454163 255 255 255
-46.969479 25.420687 108.623962 255 255 255
-46.836395 21.976770 110.462791 255 255 255
-53.487686 19.053726 109.253731 255 255 255
-18.616394 16.614456 96.201309 255 255 255
-45.628078 23.881609 107.121658 255 255 255
4.477409 -10.182366 74.831398 255 255 255
-4.838279 -0.491682 85.006798 255 255 255
3.843138 -20.205931 79.184174 255 255 255
4.400563 -17.534870 73.581535 255 255 255
-3.888860 -11.788089 87.337387 255 255 255
-48.552326 20.766958 107.778839 255 255 255
-38.683701 14.360211 107.066566 255 255 255
5.904685 -17.957401 77.823402 255 255 255
5.740810 0.718511 81.199280 255 255 255
-4.906518 -5.265055 83.741982 255 255 255
-47.319954 12.621504 106.986221 255 255 255
9.313075 -17.645454 82.434998 255 255 255
9.473224 -4.610662 79.999229 255 255 255
6.142239 17.850300 95.966125 255 255 255
-20.924019 37.563812 92.549889 255 255 255
12.644661 -0.143322 85.415001 255 255 255
-25.988920 30.955761 91.301460 255 255 255
-28.127590 16.351316 103.433006 255 255 255
35.000916 18.490122 97.175209 255 255 255
6.850709 -5.012550 76.061256 255 255 255
7.480083 -35.687664 93.820732 255 255 255
6.015728 -35.837479 92.130959 255 255 255
-27.773905 -36.821789 95.057938 255 255 255
-23.573860 8.006868 102.525139 255 255 255
34.540775 -0.995778 95.911789 255 255 255
-41.113205 10.502167 106.610161 255 255 255
14.786331 45.010983 98.741570 255 255 255
24.986286 6.135398 95.268761 255 255 255
36.796513 13.404114 98.330833 255 255 255
33.474693 16.793047 95.825966 255 255 255
2.216813 2.895944 86.066566 255 255 255
-45.494617 -0.908172 105.542374 255 255 255
34.600590 22.048300 96.610741 255 255 255
-28.844776 -29.162483 94.275719 255 255 255
-48.563641 -19.277380 106.567810 255 255 255
12.556486 1.028805 89.762772 255 255 255
-47.862103 -11.200030 110.378639 255 255 255
-15.491990 -18.511707 94.555710 255 255 255
19.770638 8.510326 93.976662 255 255 255
4.549663 -1.215997 78.069260 255 255 255
11.333721 -6.487353 82.421669 255 255 255
7.611721 14.131129 90.463379 255 255 255
11.022860 7.957938 84.919670 255 255 255
-33.915394 4.127323 106.202133 255 255 255
1.730673 18.576582 95.693451 255 255 255
-19.325294 -18.966738 92.758286 255 255 255
-1.555119 16.132402 94.625076 255 255 255
16.399195 1.773814 96.303398 255 255 255
10.851463 20.846628 96.812927 255 255 255
-48.686317 -8.532914 107.884163 255 255 255
-4.405540 15.985381 91.844742 255 255 255
7.266672 -15.417144 72.679642 255 255 255
-51.364353 32.962070 106.453857 255 255 255
-51.024815 32.048107 107.210510 255 255 255
-38.828415 19.308084 107.872940 255 255 255
-4.408659 0.532445 89.744240 255 255 255
1.401074 -12.721496 76.002617 255 255 255
9.901768 -37.356022 95.536072 255 255 255
-28.406923 -34.397545 96.621216 255 255 255
24.582365 15.274926 95.434128 255 255 255
-21.638683 39.644863 91.500053 255 255 255
-39.594875 38.462879 89.740929 255 255 255
-17.893478 41.727306 91.888687 255 255 255
7.878514 -1.737721 79.157265 255 255 255
-18.551001 19.832783 94.560463 255 255 255
-27.219149 13.413792 103.123314 255 255 255
33.446842 26.388515 98.815163 255 255 255
10.373435 37.460995 96.094940 255 255 255
-18.328236 3.672391 95.603363 255 255 255
12.662276 -0.270322 89.611748 255 255 255
10.186447 -1.926772 80.797279 255 255 255
8.437738 21.867830 95.949196 255 255 255
-47.318848 20.956106 107.805519 255 255 255
-38.175941 14.190140 106.436974 255 255 255
10.664578 -2.952136 80.805931 255 255 255
19.957163 25.298103 96.134811 255 255 255
4.259708 -4.693029 75.861908 255 255 255
-25.275898 -25.746822 95.363365 255 255 255
-3.978662 0.501593 84.755493 255 255 255
-49.161007 12.797400 106.287651 255 255 255
31.135014 9.246531 95.528343 255 255 255
13.359598 7.797575 92.067635 255 255 255
-41.796993 -8.147536 107.951141 255 255 255
-47.922485 -26.534252 106.200020 255 255 255
-6.283417 13.043430 93.895256 255 255 255
-49.378174 -8.966196 106.223701 255 255 255
-18.960011 -15.425440 95.799736 255 255 255
-48.261356 17.387579 108.082008 255 255 255
7.049222 -15.553304 72.687737 255 255 255
-50.587799 3.495213 106.670410 255 255 255
27.936369 -12.375267 94.824013 255 255 255
0.305907 -36.483128 94.282295 255 255 255
-1.836763 -7.409240 81.926025 255 255 255
-2.830403 -6.039810 92.546486 255 255 255
-6.876213 7.584289 94.089706 255 255 255
-1.919561 15.669702 94.089607 255 255 255
-35.138809 -15.044146 107.242043 255 255 255
-49.209370 15.089566 106.475304 255 255 255
-40.793880 5.049326 108.743149 255 255 255
0.373980 0.135547 86.002510 255 255 255
-45.912502 -11.984975 112.265366 255 255 255
34.147102 6.603463 97.574020 255 255 255
5.799623 -5.646791 70.589233 255 255 255
-35.919334 3.259241 107.568420 255 255 255
6.440690 -25.452011 90.052025 255 255 255
35.227406 29.664989 96.944351 255 255 255
-26.772526 6.000849 105.006271 255 255 255
34.073742 -25.170486 95.299484 255 255 255
-47.100933 -5.944035 108.950645 255 255 255
35.709469 -38.878628 97.023605 255 255 255
21.756475 12.656677 94.836006 255 255 255
33.675419 17.702791 95.972343 255 255 255
-1.646895 -4.151954 82.050545 255 255 255
-1.307252 -15.269361 81.305542 255 255 255
-0.327003 -4.866275 29.629278 255 255 255
33.955753 35.086254 96.761978 255 255 255
24.755123 -9.358962 95.865265 255 255 255
-42.887005 -25.428623 102.105927 255 255 255
-44.181892 -13.646273 106.773918 255 255 255
27.143391 15.193239 95.905693 255 255 255
4.618852 -1.230773 79.364136 255 255 255
22.193316 7.949161 95.931274 255 255 255
3.788444 -20.844414 77.060471 255 255 255
10.063247 34.465580 93.414940 255 255 255
-18.044809 23.432686 93.828590 255 255 255
-6.240993 -35.057804 96.338493 255 255 255
0.848293 -5.793035 36.425503 255 255 255
1.530553 -11.398404 73.826027 255 255 255
-2.245972 -21.471033 88.574081 255 255 255
-1.996591 -20.560389 83.618469 255 255 255
12.789937 -0.076882 85.549950 255 255 255
12.205000 1.094263 84.585617 255 255 255
-50.783039 14.885519 107.089638 255 255 255
30.583826 8.659647 95.375366 255 255 255
-4.506629 -17.114519 100.691345 255 255 255
33.456520 -0.342641 97.037025 255 255 255
36.021210 -17.791441 96.638832 255 255 255
-1.923913 32.085442 94.841034 255 255 255
-43.234985 -30.520967 98.751945 255 255 255
21.854170 3.240807 95.043205 255 255 255
35.472248 -20.939194 95.745522 255 255 255
-28.946672 -38.464203 95.011574 255 255 255
8.221579 24.403536 94.448540 255 255 255
1.654541 -15.277020 76.194031 255 255 255
7.284657 -16.859924 74.134338 255 255 255
-17.674299 -35.803867 95.947937 255 255 255
-0.545954 -48.120323 83.186081 255 255 255
-14.566781 -18.365023 95.201004 255 255 255
6.772458 -51.667126 87.878738 255 255 255
-5.678585 -22.406858 93.102051 255 255 255
-17.766562 -17.298428 94.305038 255 255 255
15.929524 -48.479317 96.389816 255 255 255
-39.816463 -13.435937 107.732056 255 255 255
-6.635411 -12.512712 94.659248 255 255 255
-40.396763 7.354056 105.568130 255 255 255
-42.142906 -12.197427 108.143936 255 255 255
-37.722569 6.888193 107.397484 255 255 255
-58.460052 -10.197607 105.533684 255 255 255
-56.870827 -10.198731 107.186287 255 255 255
-45.413357 -33.921764 94.735992 255 255 255
-3.068461 -58.005714 88.121819 255 255 255
-54.057129 -51.780811 93.953499 255 255 255
-50.608337 -56.239906 94.969353 255 255 255
15.988296 -67.998795 95.269112 255 255 255
4.161242 -66.245728 96.361336 255 255 255
-50.526497 6.680132 106.006958 255 255 255
-51.785576 5.359586 102.629639 255 255 255
-59.505093 -18.081829 105.640770 255 255 255
-3.870644 -8.920701 89.995140 255 255 255
8.230491 -59.282433 96.691277 255 255 255
-2.116455 -0.812684 87.263771 255 255 255
-55.462105 -31.987633 100.536339 255 255 255
-24.253929 -25.036245 95.084412 255 255 255
-19.282619 1.438963 97.435951 255 255 255
-5.939862 -42.994019 96.114555 255 255 255
22.581341 -54.010895 95.667130 255 255 255
-48.601139 12.024698 106.216141 255 255 255
-58.523800 -23.090939 107.804939 255 255 255
-54.160908 8.610798 92.227097 255 255 255
-58.997341 -16.025265 107.784096 255 255 255
-59.146774 -24.922428 104.489334 255 255 255
-52.119118 0.379025 101.434898 255 255 255
-54.794041 7.061511 89.708313 255 255 255
-54.141029 -1.605485 90.123825 255 255 255
-51.753933 12.781086 105.242722 255 255 255
-52.172588 11.149750 107.098206 255 255 255
-59.282906 -33.004303 98.977509 255 255 255
8.606977 -53.379326 92.418121 255 255 255
-61.979092 -25.583986 103.490509 255 255 255
-5.315990 -19.204243 94.045952 255 255 255
8.694684 -47.861435 88.688530 255 255 255
-59.637077 -18.799252 107.999084 255 255 255
19.090006 -17.955992 95.276314 255 255 255
13.010115 -63.431805 97.860878 255 255 255
-32.649380 -70.704941 95.453621 255 255 255
0.787967 -46.128407 84.748245 255 255 255
-52.227009 2.448776 94.986923 255 255 255
-30.686340 3.079811 106.706375 255 255 255
-2.089850 -67.748383 95.350098 255 255 255
15.969542 -51.312977 96.971092 255 255 255
